ply
format ascii 1.0
comment Generated by the CGAL library
element vertex 926
property double x
property double y
property double z
end_header
14118.5590892226 20505.7580383002 142.44687738922 
14116.1822762367 20505.8906497982 142.472389713257 
14114.0562930356 20505.6532142582 142.728598187812 
14112.0448835354 20505.9878416661 142.86561877839 
14110.1779909713 20505.9511085945 142.836502111694 
14108.1481003558 20506.0632683391 148.657967486456 
14106.1530980337 20506.0343736708 148.053194842245 
14104.1834809405 20505.9025172115 146.485044809342 
14101.7943200347 20506.0700806307 146.430769847597 
14100.0657199158 20505.9241438482 146.210224038452 
14098.0442323206 20505.965945342 146.155863292743 
14096.3299658917 20506.0771250847 151.697835455951 
14094.267829323 20505.8106298093 150.132240279465 
14091.9744804858 20505.6206323757 144.61458836772 
14090.0580139699 20505.7812538899 142.471572774284 
14088.5262547838 20506.0939616962 155.080554112766 
14086.3352369402 20505.9093039507 155.779535476214 
14084.5285846118 20505.8227179812 156.511022804031 
14082.7924490939 20505.8261576972 160.697448557676 
14080.5637335239 20505.9694982156 160.773999162094 
14078.8356278709 20505.7854110127 158.261013154886 
14075.7238617684 20505.9130666963 143.319205277683 
14074.6303510523 20505.8879876131 158.342865179357 
14071.9517544696 20505.9872829865 144.528325366974 
14069.7348530127 20505.9536269478 142.404762443288 
14068.0712179269 20505.7060663958 149.25540907153 
14066.0064944846 20505.8878098324 149.720816409029 
14064.1541258723 20505.9065550647 150.256774137763 
14062.2418697489 20505.8938680466 150.717147718591 
14059.9275335384 20505.9278039507 151.174634872708 
14058.1419577363 20506.1001592535 152.675147252631 
14056.8716304267 20506.0878267037 161.375167261589 
14055.0272382348 20506.0757066052 161.285911339774 
14052.9742167432 20505.9150542291 160.79046016922 
14050.9956325573 20505.8631308195 160.315303396347 
14049.0697677241 20506.1377381073 159.800756178624 
14046.7707561821 20505.7963725686 159.28949454108 
14044.3915060887 20505.9621912039 153.128983887139 
14042.1318379504 20505.7590610994 152.345407588311 
14040.0908794987 20505.9479356812 152.688089206602 
14038.3245582754 20505.9593419238 152.451999333865 
14036.0041600807 20505.6921564576 151.147500826877 
14033.794502648 20505.7404590369 150.876331875988 
14032.3363393623 20505.7771113625 155.659598903595 
14029.9798782238 20505.9258106987 155.241820294709 
14027.9264491779 20505.9079495527 152.360836153265 
14025.9965075574 20505.8565050252 151.983482134149 
14022.810993028 20505.8513769597 142.21057012848 
14020.6834698811 20505.9000278844 142.055727720193 
14018.7790630691 20506.00791677 142.138063311364 
14016.412555291 20505.8496883567 142.349464794863 
14014.7911379813 20505.8672137062 142.421238508466 
14012.3590228895 20505.8689254976 142.589527796232 
14010.530659485 20505.8095369778 142.958513863911 
14008.4183259256 20506.0595473861 143.12608269413 
14006.4485930984 20505.9872237932 143.107542273845 
14004.5285937565 20505.7634118607 143.905614420444 
14002.2092233636 20506.0632024733 143.372727010331 
14000.387494843 20505.7159566296 143.190647555955 
14250.1154848757 20506.2119647702 153.639175162256 
14248.1808204532 20506.3825938252 153.588834159272 
14246.2797085595 20506.5583685759 153.46879497177 
14244.3963236586 20506.329297011 151.175199758232 
14242.3416117074 20506.2086158103 150.35730471404 
14240.4961300439 20506.4457910826 150.469929779354 
14238.4579479342 20506.523008511 150.319876408914 
14236.4616701469 20506.1581150746 150.162055100348 
14233.8065488271 20506.3586175634 154.029719949349 
14231.9353296609 20506.0342395323 153.677367985775 
14229.02898863 20506.2449930287 158.66499432765 
14227.1955268059 20506.1377582496 159.303516685682 
14225.2598985544 20506.3784247686 158.747774289049 
14223.7647752268 20506.2455991784 154.055506899187 
14221.235103199 20506.4553555754 157.218145812415 
14219.2693522531 20506.1274074258 156.862738544721 
14217.1627977105 20506.0623828873 156.757045444103 
14215.4640899642 20506.3408267905 156.611699884661 
14214.2712684108 20506.3470424368 145.747735416582 
14212.3157560097 20506.1372725648 145.802856457369 
14210.2984151559 20506.204372149 146.284349470378 
14208.0819425537 20506.396156663 150.391628167676 
14205.7154949228 20506.2415461873 152.399500242202 
14203.6635839772 20506.3286471035 150.629141341583 
14201.8134094707 20506.428069426 150.77292163943 
14200.0316632803 20506.256661042 148.913711032943 
14197.2362954107 20506.5373333269 156.040001467718 
14195.4263625727 20506.1554659578 156.721388450579 
14193.6276642312 20506.4372622918 151.68577694115 
14191.4098644924 20506.3408726408 152.778532349699 
14189.9837330152 20506.2024940358 148.077986954074 
14187.8998462292 20506.2645547584 145.090041660268 
14184.8751666701 20506.1725730994 159.164484043535 
14183.2526470069 20506.3134184949 159.453993680955 
14181.3324629578 20506.3340338464 157.989088079687 
14180.3638277714 20506.4216758113 141.891506128715 
14178.0166182309 20506.3792884997 146.241807368865 
14175.7292919589 20506.1114152205 147.127314208328 
14174.2119415435 20506.4125200671 141.518401219235 
14172.0814391879 20506.1917930359 141.652272032727 
14169.9926790029 20506.1467037279 141.606837963697 
14167.4476726355 20506.3545512417 155.160301997775 
14165.3962060492 20506.344685494 157.273596274256 
14163.2637800421 20506.2124817029 159.410379258594 
14161.2127550378 20506.3602115522 159.108606762385 
14159.1142581588 20505.9967890547 157.510572785184 
14157.4741527676 20506.4307397279 157.45535090905 
14155.8277766729 20506.3259582056 142.979007820973 
14154.0380175365 20506.3278402409 142.257501039782 
14151.8504187865 20506.145894811 142.138368630537 
14149.784892312 20506.0648759966 144.024658940528 
14147.8176880976 20506.3648172559 144.136775859508 
14145.9084165785 20506.2487294271 144.27150981153 
14143.8501486423 20506.2671835142 144.419133829262 
14141.4292867621 20506.4705032371 159.270030574932 
14139.5530655615 20506.2936050523 159.088682765749 
14137.5081890972 20506.3893548087 149.715604934747 
14135.7342017072 20506.36196925 145.282013718906 
14133.6297290176 20506.1178322186 145.566372607602 
14131.5314579813 20506.1076390127 160.471739841031 
14129.5222994589 20506.081151799 158.421385376117 
14127.6332737707 20506.2642775433 154.717769025781 
14125.4601495873 20506.1775487157 145.89021260903 
14123.6534132077 20506.2718456402 144.466954073323 
14121.827754425 20506.2111528926 144.674296483412 
14119.3988075456 20506.2333781623 142.334782321597 
14117.8203854269 20506.1369728183 142.533858068708 
14115.7219154107 20506.3664224527 142.522285352191 
14113.7051126358 20506.3590287411 142.37591263438 
14111.2037744912 20506.5384362551 142.607669242218 
14109.4947938394 20506.2673862047 142.597842927418 
14107.3975378534 20506.3186245354 148.538285737202 
14105.5865250736 20506.6280294615 147.937454386002 
14103.5843614638 20506.4296685681 146.572866814566 
14101.6521692926 20506.3837797506 146.413085132034 
14099.4861894517 20506.1479970272 146.306263302455 
14097.0707214515 20506.1910965068 146.188689861896 
14095.3634743506 20506.2482178184 150.240777855248 
14093.6784184229 20506.1178190901 149.740993056768 
14091.3182180112 20506.3775741975 143.999651321929 
14089.1311818575 20506.276413049 142.644067044293 
14088.0936270681 20506.4339194599 155.275280053842 
14085.8122663537 20506.1150787121 155.970687045395 
14083.7963795382 20506.4379354558 156.728157410995 
14082.0387232682 20506.111607621 160.765353616951 
14080.0943056285 20506.3163476906 158.682144899741 
14077.6706783602 20506.3999538307 158.145424793627 
14075.701886399 20506.2189485945 158.214925099613 
14073.0566494451 20506.3841090913 144.19570649714 
14071.1164822457 20506.2044435786 144.475372334903 
14069.4680133912 20506.3643186327 149.311810461374 
14067.5188920859 20506.3250535 149.843253388769 
14065.4574713724 20506.3602767565 151.632947749484 
14063.5693031302 20506.0881178738 151.482648495042 
14061.6341798321 20506.4429071459 151.229767095813 
14059.5640668727 20506.0680850289 151.686296562943 
14058.223353726 20506.2452053017 159.085450676374 
14056.1655146835 20506.5629011838 161.268496116997 
14054.1485142146 20506.5144200911 160.830001843645 
14052.2979770447 20506.1188155706 160.216236562302 
14049.9868253364 20506.073809778 159.80253118317 
14048.3182482764 20506.2988801371 159.185094467721 
14045.5918115112 20506.392521453 152.850581221548 
14043.3685368224 20506.2941914056 152.868706177134 
14041.3922622628 20506.1708833296 151.984819876131 
14039.466272347 20506.0997026794 151.610791281389 
14037.3672377933 20506.4772921301 152.295358285594 
14035.2756158899 20506.1778762936 152.084320146483 
14033.4158759199 20506.5014672263 151.789573884257 
14031.4526369616 20506.2528336456 155.41753882331 
14029.2851859427 20506.3851861654 152.416103242422 
14027.3660721565 20506.3906999365 152.058525940979 
14023.9810551743 20506.28329082 142.152609285388 
14022.013227452 20506.4016984752 142.074129389812 
14019.9589529481 20506.2481091119 142.087324423921 
14018.0643515128 20506.3216987188 142.21493159112 
14015.6758865352 20506.2348869991 142.229783048075 
14013.799398489 20506.2076337871 142.518176468656 
14011.8304567892 20506.1620036277 142.94972978087 
14009.9047234509 20506.531370278 143.04184829875 
14007.6516405381 20506.3400203189 143.59899722509 
14005.7399292595 20506.3229252566 143.580909107952 
14003.6630853829 20506.2651177911 143.281289331324 
14001.7244620402 20506.2009052348 142.890894606617 
14249.5384920552 20506.9261691132 153.07836329469 
14247.4284456028 20506.4938283403 153.396944576413 
14245.6316498152 20506.4716639777 153.207709367453 
14243.5575302829 20506.5554771831 150.349674021053 
14241.9179744678 20506.6737421017 149.640696828912 
14239.6265397673 20506.8568522779 150.236249601694 
14237.778357696 20506.6943596604 148.836358669089 
14235.1398301783 20506.6595498004 153.992529760307 
14233.2435618824 20506.4428489609 153.64876220375 
14230.3528786331 20506.7501271914 159.694323069859 
14228.6357510255 20506.790925677 158.605130441867 
14226.3655820098 20506.8455660234 158.692694558084 
14224.5261903562 20506.6145186806 158.295472113195 
14223.0588817968 20506.8310266776 153.40183164771 
14220.7775313154 20506.6237718142 156.81760200291 
14218.5905602258 20506.9914855518 156.594592684298 
14218.2096794706 20506.6746664662 143.046277510966 
14216.1950529633 20506.7752942756 143.208752059588 
14213.7566427691 20506.9060150891 145.805813436272 
14211.8166335645 20506.8860213372 146.056633488373 
14209.6920804121 20506.9655114071 146.572353613716 
14207.1606274806 20506.7292151445 150.740868938913 
14204.9629043899 20506.2745084054 152.917803591 
14203.2733495601 20506.6127390377 150.895595222213 
14201.2011232702 20506.8063428207 150.908024571858 
14199.428777831 20506.8125674221 148.760543186419 
14196.8420389978 20506.88008991 156.176199531801 
14194.4319204685 20506.8330474254 156.948683483167 
14193.1131014991 20506.8500947965 151.627547720091 
14191.033682036 20506.7017578031 150.783784147386 
14189.2590042381 20506.9774370906 147.779900649088 
14187.3696377768 20506.6552522733 146.840881660492 
14184.3996154507 20506.4451520622 160.184882421764 
14182.5170773583 20506.9048014555 158.909403944323 
14180.4507259703 20506.4877198711 157.394047820525 
14179.4285403427 20506.7883146965 142.014268465081 
14177.490611512 20506.7879582593 146.100966438342 
14175.2760111306 20506.6657486587 146.991686899332 
14173.6891491989 20506.3538200929 141.582902945558 
14171.2448574501 20506.8375316077 141.529792456813 
14169.0894137365 20506.7311514899 141.634292395661 
14166.7896422377 20506.6168128374 155.631857772907 
14164.8061106613 20506.8704597816 157.782771050647 
14162.5377055736 20506.6779504505 159.996355016929 
14160.6703595232 20506.7692284935 158.362385231064 
14158.8016887046 20506.8844938019 157.520086780934 
14156.5516305858 20506.7642000008 157.340570090767 
14155.4283671006 20506.8371416592 142.847264061459 
14153.1699706932 20506.7626858638 141.973056194221 
14151.2250831676 20506.6080643469 142.19108284797 
14149.2536240799 20506.6042941484 144.17761046711 
14147.14415922 20506.6273306978 144.260990291365 
14145.1124264476 20506.5634460814 144.24636994058 
14142.710854657 20506.7707962949 159.419633955151 
14140.7537616341 20506.737976548 159.195800117799 
14138.9360739281 20506.6385054687 159.100965468579 
14136.9412224563 20506.6849492838 148.51059366925 
14135.0728484276 20506.7145376718 145.287335334775 
14132.9700542215 20506.5343196005 146.048107813139 
14130.7949996375 20506.7456527566 159.99145480005 
14129.0934449704 20506.4919211909 157.910405688718 
14126.8647414636 20506.932230797 147.402638001715 
14125.0254641622 20506.4769370649 148.949683126953 
14123.0418949342 20506.9065432162 144.967207314364 
14120.9210231742 20506.7641032012 144.922525507787 
14118.8831108677 20506.6201714419 142.444800163971 
14116.8337504806 20506.807330336 142.658182902396 
14114.7810079205 20506.6764703051 142.447431650706 
14112.7104720837 20506.9508620958 142.408901821958 
14110.688877021 20506.8089578455 142.174315724306 
14108.7411986703 20506.5992971749 146.969429920921 
14106.8548819259 20506.5646059796 148.340232378048 
14105.0003192394 20506.6224804575 146.456943241684 
14102.8886530855 20506.5621732289 146.51229874174 
14100.9379176424 20506.6896290128 146.405512753756 
14098.7208333728 20506.6751702741 146.276119132463 
14096.8356223498 20506.7753027239 148.292085790432 
14094.6410415801 20506.5941076594 149.897628959256 
14092.8439785548 20506.6797810592 149.533703340938 
14090.6372504975 20506.7059100535 143.85310609839 
14088.5501352701 20506.6525424753 142.506061455911 
14086.9448101315 20506.7325897687 155.286121068092 
14085.2317107798 20506.8373736021 156.219617911756 
14083.2388627678 20506.8573582874 160.978279689669 
14081.4434600761 20506.8073255641 158.760186712543 
14079.1246926092 20506.6602551137 158.460590520267 
14077.3228258449 20506.8318450564 158.293544888116 
14075.2879567191 20506.6893132889 158.721210795385 
14072.3326890385 20506.7544292166 144.681429744815 
14070.5980142512 20506.8648339722 149.455282174363 
14068.6996599524 20506.9228598679 149.801066420446 
14066.8524382055 20506.618939044 150.225465605545 
14064.8123545125 20506.6328547635 150.793198698522 
14063.050460342 20506.5520628677 151.58000171221 
14060.8641516634 20506.7713837472 151.742789652039 
14058.8460066417 20506.7256728077 152.046592304928 
14057.5475673525 20506.6857176229 161.258901000022 
14055.6971877684 20506.8224033109 160.748337497076 
14053.4435068682 20506.4664592384 160.228537631876 
14051.4673051856 20506.3465697147 159.657979297692 
14049.7182031222 20506.5540478551 159.139073665311 
14047.3844209105 20506.6360066738 158.657539433195 
14044.9417980545 20506.5813513908 152.365759456314 
14042.8791623735 20506.7487096684 151.976590355275 
14040.8135695199 20506.7660128128 152.368634419378 
14038.7605890704 20506.882480445 151.309249270728 
14036.4426088036 20506.9453652857 150.623897637034 
14034.4454358369 20506.9799481512 150.302938739599 
14033.1455788403 20506.8650922071 155.959490213397 
14030.87472884 20506.7045972013 152.433318424032 
14028.5714737852 20506.6927266196 152.018949877302 
14025.365700482 20506.8594363877 142.21246848037 
14023.4530731748 20506.9021147837 142.112977272038 
14021.2690588352 20506.6506902492 142.016156688606 
14019.4935774765 20506.8270440406 142.271630195045 
14017.292144794 20506.6498002489 142.194778777073 
14015.0847918782 20506.7846434811 142.432688423069 
14013.3876353029 20506.4975471337 142.661689635911 
14011.2060660925 20506.6150417765 143.644836268941 
14009.1754445853 20506.5000262942 143.122333917894 
14006.9661957613 20506.8121167706 143.541751316381 
14004.9401382531 20506.8429551336 143.663540570689 
14002.923607055 20506.7306961828 142.89500165923 
14000.7567876704 20506.6378389331 142.474877578356 
14248.8214622888 20507.0227913798 152.660005432375 
14246.6821285316 20507.1732845672 153.177023387252 
14244.9460480502 20507.0926007404 151.742372967029 
14243.0709985996 20507.0180667792 149.818264301435 
14241.3454401375 20507.1443838521 149.198205020023 
14239.3064681086 20507.1344671948 148.759893371016 
14236.9943315687 20507.2321258281 149.874790796371 
14234.4919148589 20507.3167474489 153.94834832978 
14232.4708783565 20507.2027782571 153.581735490959 
14229.8632596067 20507.0852098135 158.646562486326 
14227.9094756746 20507.2725172013 158.650788417309 
14225.7847448402 20506.9786231043 158.650830535281 
14224.816950451 20507.2260021558 150.127359379105 
14221.9985388192 20507.3212349754 156.56553901838 
14221.5524642443 20506.9999905724 143.27075672166 
14219.5359595017 20507.1088250673 143.065368511815 
14217.698034904 20507.1250599379 143.130227922001 
14215.1938759522 20507.1367153006 144.596193766356 
14212.8917163555 20507.0324406697 145.799936290852 
14211.0697102592 20507.2038634595 146.302401810553 
14208.6851651959 20506.9540748222 149.600207529281 
14206.2823948094 20506.8970972924 151.462609430444 
14204.5341580786 20506.7591765981 152.347270098478 
14202.6301187846 20507.0969904214 150.856973107365 
14200.5694343812 20507.4691223522 151.028692493668 
14198.2406624998 20507.0777364101 154.882288820496 
14195.8275589869 20507.1946426822 156.406891635732 
14194.0307042492 20507.3647330267 155.544616358756 
14192.2789242145 20507.1265541674 152.184190736054 
14190.398814352 20507.1009262048 150.409984262096 
14188.4393261014 20507.33979138 148.059779189191 
14185.7726849593 20506.9673572838 157.981227822107 
14183.6343965457 20506.8829491847 159.900771021734 
14181.7129802262 20507.1431076357 158.148800658454 
14180.7589719633 20507.2602943114 142.328146127477 
14178.6920450598 20506.8842670444 147.084207110954 
14176.6538208399 20507.1632496495 146.629713591756 
14174.7007178174 20507.0170277854 141.56438770806 
14173.1118869327 20507.3133590809 141.649464006595 
14170.8404598097 20506.9667210073 141.615192738066 
14168.9224732277 20507.1543595046 141.598530901067 
14165.9141780606 20507.0291831138 156.128154490814 
14164.0998394536 20507.2819940558 158.51306396322 
14161.8978707284 20507.011451965 160.083528340382 
14159.7025225719 20506.9376508901 157.583933174233 
14158.1200182289 20506.9469752892 157.455727026389 
14156.4510226721 20507.1543795952 146.196353887647 
14154.6302429522 20507.1399529046 142.353071687672 
14152.8337132266 20506.9117365166 141.866757943028 
14150.6743307205 20507.2599417135 142.510608928752 
14148.6419420712 20507.0083223004 144.221791756755 
14146.4389496497 20506.9107484421 144.323771497676 
14144.5316413946 20506.9847390302 144.494776131869 
14141.9176319911 20506.9092746861 159.41376706712 
14140.3393501586 20507.0314477981 159.242104625848 
14138.0180429268 20506.8665892456 159.115605195306 
14136.2525845466 20507.0994283657 148.052329948927 
14134.385140782 20507.2196315909 145.383010822386 
14131.9573638625 20507.0676189402 160.953371954071 
14130.296833425 20507.0209216549 159.339692335092 
14128.0965411703 20506.8598267804 157.538474567608 
14126.2129467197 20507.4087295241 148.327096182451 
14124.2504519198 20507.251107517 148.913415652078 
14122.2487166936 20507.2192612834 145.198410907031 
14120.0802214157 20507.1301979778 147.409687632059 
14118.3026841859 20507.0959905208 142.555118013788 
14116.2783427539 20507.1737952127 142.459208419255 
14114.0745969088 20507.0254950886 142.399477209519 
14111.8074162917 20506.9843254736 142.698524839785 
14110.2030585512 20507.4691655689 141.968505585844 
14108.2173505667 20507.3915167088 148.708320683904 
14105.9594756644 20507.0317543465 148.186347909919 
14104.3466202613 20507.1205771511 146.441883361754 
14102.2404832218 20507.1405660071 146.479741735515 
14100.3202471423 20507.1649110479 146.330531530359 
14098.023647498 20507.0347904573 146.242619503707 
14096.3968624845 20507.0559015723 151.902757670434 
14094.2978999545 20506.9258371946 149.630478270753 
14091.9480879771 20507.0655921937 144.453151535895 
14089.8333384274 20507.1180840098 143.750234285618 
14088.5338478906 20507.0241017676 154.821332628969 
14086.2149288162 20506.9269745771 155.642668065348 
14084.5347616991 20507.2444854973 156.535122843431 
14082.6885251218 20507.1739065758 160.838846671975 
14080.436274475 20507.0584933686 158.63091878719 
14078.7826540553 20507.1743890088 158.292944059497 
14076.5656648049 20507.2715332944 158.700740159545 
14074.563866125 20507.03586521 159.237875762197 
14072.2191245441 20506.8777227222 149.263692304164 
14070.4830404556 20507.0841439774 160.042616612803 
14068.3956216455 20507.084329635 151.549825374395 
14066.1854778625 20507.3313415352 151.123258185367 
14064.1537803675 20507.0044763592 151.218672280924 
14062.222702638 20507.1426943516 151.666365817614 
14060.2747056719 20507.1104503378 152.165060987342 
14058.3454197894 20507.0947113749 153.706589811382 
14056.9114678903 20506.9664698343 160.578825443444 
14054.6420244849 20506.8786273215 160.325504426801 
14053.1869213773 20507.2562247572 159.709457952943 
14050.9090770475 20507.2191587549 159.144594904435 
14048.6733448163 20507.3263822994 158.572445023812 
14046.7187893594 20507.2402256796 158.03317670661 
14044.0560417553 20507.0649559081 152.641378164256 
14042.1291172491 20507.0542890156 151.586774941538 
14040.0084817184 20507.2833781494 152.282414493269 
14037.9216414175 20507.3770603292 150.637045254457 
14035.8627151768 20507.0380582591 150.323669584363 
14033.804837136 20506.9121361959 149.960744269407 
14032.071426172 20507.0562609777 152.38197159767 
14030.0249837041 20507.1626846327 151.983086952751 
14026.8582105327 20506.9975875576 142.081425602107 
14024.7284782916 20507.1398746613 142.047833764264 
14022.9034475856 20507.3078678718 142.154482322157 
14020.6207370239 20506.9989135878 142.129520984567 
14018.4825435236 20506.9280103501 142.28028038328 
14016.4976701031 20506.9324467607 142.442087123759 
14014.5190707901 20507.2208487123 142.501780855157 
14012.6443128601 20507.389147041 143.021387035009 
14010.6228854156 20507.1085088287 143.945937452842 
14008.4208945471 20506.9631191587 143.48542798832 
14006.4461368518 20507.2044617723 143.567529328788 
14004.3087454702 20507.0077885422 142.909156100758 
14002.0423501039 20507.0112910065 142.590935805401 
14000.3948924175 20507.2372914765 142.718506578295 
14250.374154323 20507.4136977218 152.26988102364 
14248.1877128839 20507.5102152576 152.256948643209 
14246.091909221 20507.7713732838 153.152775995269 
14244.2915056486 20507.2160524433 151.184823699371 
14242.5976979491 20507.4961130982 149.135759064246 
14240.7596402291 20507.5959328845 148.579684083778 
14238.8816229843 20507.6991518004 148.078793651778 
14236.2374694604 20507.4731923694 149.47185069529 
14233.8772787174 20507.7239882441 153.737442717047 
14231.6329160697 20507.4502649794 153.519633084051 
14228.9870607545 20507.5705071889 159.021413262735 
14227.2189636969 20507.5689810027 158.637964154013 
14224.8879211047 20507.5193372929 158.926222332889 
14224.3615255864 20507.5302159783 147.878815550532 
14222.5751530031 20507.4524384706 147.613480391219 
14221.1140366779 20507.6737397587 143.128141670108 
14218.954782462 20507.696852733 143.1480543274 
14216.8506214848 20507.5060963635 143.23857829891 
14214.5157266855 20507.5112557581 145.624006794264 
14212.3683257987 20507.6570249671 145.873578954412 
14210.2145945715 20507.6743733173 146.508221802711 
14208.1435021094 20507.6378106459 150.08417097463 
14205.6316537673 20507.1940623771 152.123241174276 
14203.8659098833 20507.5119696442 150.567575022016 
14201.9182208695 20507.5947321183 150.836587891014 
14199.9798607647 20507.544056579 149.963572863086 
14197.6189335678 20507.4584691597 155.869325972296 
14195.3356859543 20507.5867584807 156.711131075781 
14193.7262735803 20507.3289040945 151.811166564122 
14191.5642181016 20507.4306185251 152.708020847696 
14189.845092169 20507.4191220554 150.090691575904 
14187.8290851976 20507.5456213019 148.792324702667 
14185.1946254939 20507.6518582216 158.981271729356 
14182.9818078258 20507.5565500101 159.472045616882 
14181.3402599764 20507.6644159649 157.440962879558 
14180.2891018136 20507.6446114179 142.151446850809 
14177.9293376749 20507.1613632797 146.952525454469 
14175.7670950358 20507.7099920393 146.958900088847 
14174.0878690237 20507.3261395762 141.563190913509 
14171.8812097743 20507.4143630916 141.502569695474 
14170.0413794568 20507.355855148 141.509189859605 
14167.3911794742 20507.5478741583 155.072933847056 
14165.3585792567 20507.5690246504 156.856735316831 
14163.0512405433 20507.3666179477 159.165156445884 
14161.2052996356 20507.3550052935 159.105708815452 
14159.3731459052 20507.6531643172 157.649535025044 
14157.312637035 20507.5164498151 157.402267827724 
14155.8005157253 20507.5501646822 142.363653828026 
14153.9169721694 20507.5786873251 141.831787565911 
14151.9174302032 20507.582603832 141.762248337849 
14149.7378606928 20507.5893242023 143.012922121428 
14147.9424701486 20507.5829490119 144.304769592634 
14145.8241610774 20507.3691992316 144.317077887587 
14143.7385193179 20507.2861441061 144.455459722846 
14141.5782232072 20507.514180201 159.279127392988 
14139.2797690723 20507.3475724031 159.16800324064 
14137.619134661 20507.728469021 152.746146685764 
14135.4668067829 20507.504195272 147.234260850074 
14133.3848132817 20507.5636598426 145.537963576119 
14131.4572930107 20507.6704159565 160.61584435192 
14129.7806305297 20507.4051459207 158.647123225032 
14127.6371540434 20507.5489061351 156.540983517959 
14125.7565849417 20507.5035108556 149.302865327681 
14123.4583289966 20507.7681241314 148.786477751695 
14121.6043430408 20507.465373599 145.401034962031 
14119.6621736636 20507.4356587416 142.32232574512 
14117.6853758789 20507.5955033213 142.46101774578 
14115.558035075 20507.6626456493 142.25954241156 
14113.5871647761 20507.5205689916 141.927877891774 
14111.4730236424 20507.5080454876 142.08746413698 
14109.3559419422 20507.599061525 141.749835278742 
14107.4925511146 20507.3908816439 148.706233255454 
14105.5611135922 20507.4470634704 147.915888206015 
14103.4462465461 20507.696980051 146.432271563038 
14101.5846181628 20507.4233247829 146.494658336298 
14099.3600974488 20507.5388442874 146.234740623644 
14097.19163094 20507.6634156478 146.178595006972 
14095.4755817192 20507.6103222893 149.830817721131 
14093.6581782541 20507.5422363464 149.67463498663 
14091.1975481269 20507.6334228691 143.475311519868 
14089.2678474338 20507.2960603346 143.754740828134 
14087.770610789 20507.6516485919 155.189917096299 
14085.7925094762 20507.484119657 155.777457179334 
14083.8437496285 20507.7813563796 156.600192287575 
14082.204116045 20507.6075081109 160.656613867031 
14079.7981628449 20507.5332711128 158.521569735788 
14078.0833114505 20507.5494083271 158.888341198532 
14076.1228505656 20507.4585592567 160.522907730856 
14073.9504781398 20507.704250993 159.680043632122 
14072.1816030936 20507.4183317913 160.740942367065 
14069.8297190499 20507.5545724786 150.44739895371 
14067.6388726743 20507.5618282775 150.881608446642 
14065.253685216 20507.574898002 151.546817889792 
14063.4247462257 20507.3508105707 151.707354914369 
14061.5513750406 20507.7374470859 152.210706173803 
14059.4813603812 20507.6338964334 152.814097556599 
14057.700375059 20507.4884910514 156.283104819105 
14056.1769193118 20507.5175845233 160.139972923568 
14054.3331138436 20507.4734775382 159.727318240734 
14052.2760715909 20507.5003026704 159.1242584786 
14050.123950909 20507.554913504 158.543429995238 
14048.0099539876 20507.4734518631 158.04736509262 
14045.3852504308 20507.6026520195 151.907294508108 
14043.2126771004 20507.7757184345 152.501919054489 
14041.3283481571 20507.6836433476 151.146453619369 
14039.1569583228 20507.5535715609 150.655082617124 
14037.2860313906 20507.6967443514 150.296291894046 
14035.1807027507 20507.5759117718 150.053219451079 
14033.1010339452 20507.6911969883 149.735923793434 
14029.9396702198 20507.809212409 142.234463597069 
14028.3585340506 20507.7041404546 142.197864781083 
14026.0785749681 20507.5898598319 142.102048089249 
14024.249178021 20507.5544297447 142.216135720331 
14021.8105398309 20507.5573603361 142.139793208458 
14020.0980780586 20507.6412543785 142.205641138157 
14018.0504173916 20507.4148671507 142.306004104257 
14015.8681398957 20507.5600477326 142.424059563533 
14013.8349795169 20507.4160496051 142.386672477881 
14011.7812184963 20507.3068680511 143.632036216985 
14009.8304960672 20507.5956124579 143.6667692991 
14007.9911583508 20507.5667124136 143.521699488488 
14005.9565747215 20507.3940871436 143.112188530953 
14003.6377670892 20507.4002284744 142.391733413187 
14001.5013790296 20507.5213567173 142.670165593138 
14000.5959982068 20507.5193485532 149.476703885374 
14249.7298122928 20508.0602172957 151.76580527041 
14247.4141344741 20507.9283630033 152.938092561775 
14245.359516784 20507.8743089862 152.774412359703 
14243.9188389731 20508.0102542085 149.154638897833 
14241.9792053072 20507.8235513619 148.269036235 
14239.8902083269 20508.1767938522 148.101343100177 
14237.9381937165 20508.0460704373 148.450288981877 
14235.8764688455 20507.9553264496 148.915191300502 
14233.3113245691 20507.9385688267 153.635932529813 
14230.4218658794 20507.8064222609 159.597361023947 
14228.4931141711 20507.9538328041 158.728195199493 
14226.4036503198 20508.0493660943 158.661867911904 
14224.3901427739 20507.7908805313 158.481222163652 
14223.578843007 20507.8427065629 147.587851765005 
14221.8963414359 20507.7936006459 145.464082646241 
14220.32955633 20507.9762386645 143.102876581993 
14218.2726659201 20507.9542717465 143.092335922008 
14215.7345824317 20507.8953263514 144.535937375859 
14214.0422161929 20507.9319643956 145.838660208852 
14211.6882480364 20507.9748530102 146.1046292101 
14209.6533224022 20507.9654439832 146.461970118195 
14206.961931902 20508.0013670311 150.389540546201 
14205.2715285671 20507.9180591528 152.634061394806 
14203.1281445342 20507.8251708815 150.818989981417 
14201.0851045075 20507.9656213125 150.996708075633 
14199.466526638 20507.915725883 149.310162765516 
14196.680862324 20508.0033746235 156.164622891114 
14194.6853626372 20508.0158316778 156.941687078196 
14193.2458276002 20507.9403112275 151.709603414262 
14190.9275228821 20507.9169497832 152.205718100473 
14188.7792142071 20507.7973668471 157.249023650438 
14186.286225303 20507.8579939369 157.855989809831 
14184.4708934282 20507.8895779028 159.8395404758 
14182.345113201 20507.9822765909 158.71877922845 
14181.3546594481 20508.0225276011 148.261479108719 
14179.5242216803 20507.9059414443 142.177722795963 
14177.1952633739 20507.7114280192 146.60066307044 
14175.5631228182 20508.0508979013 141.462896423056 
14173.5243501882 20508.0302952729 141.591253766616 
14171.5093391288 20507.8093593527 141.459944998795 
14169.3397782111 20508.0992576053 141.608089925134 
14166.8708572496 20507.8578543782 155.446028761551 
14164.8742974487 20507.8229865259 157.559505960709 
14162.6732818328 20508.0156354296 159.696330943225 
14160.753736431 20507.7332895125 158.546195117683 
14158.7499181105 20507.7350906083 157.458955004693 
14156.9366931297 20507.9518641264 152.700492995287 
14155.0812603809 20507.8555147276 142.087877530528 
14153.194709482 20507.9947922759 141.689288105203 
14150.9417557527 20508.0561301931 141.654302610262 
14149.2628171984 20507.9821646185 144.20933613745 
14146.841770208 20507.9554643018 144.348462562635 
14144.8814513137 20507.8025082734 144.286482414466 
14142.6540332822 20507.9908295331 159.567903383687 
14140.9140087987 20507.9488958273 159.377385813671 
14139.183472742 20507.8581079089 157.113124763344 
14136.9193773835 20508.0030663664 151.929358893802 
14135.1271129053 20507.8046067615 146.848626649986 
14132.948371705 20507.9715817443 149.404207204026 
14130.7988039766 20507.7219487358 160.029645995791 
14129.0617369703 20507.8681771893 158.077034201291 
14126.8574521358 20507.9342808875 148.476339478154 
14125.1081120844 20507.8773808973 148.99813571595 
14123.0174685027 20507.9472354948 148.345306262428 
14120.7807996555 20507.7729397677 147.716188941288 
14118.7214633539 20507.8543080671 142.5338930823 
14116.9672138829 20508.0972161096 142.251429991176 
14114.745894139 20508.0555302085 141.793543549577 
14112.7510661902 20507.9957191616 141.80401017407 
14110.8288051396 20508.1338046061 141.817263924083 
14108.4902479563 20507.7406153776 141.742714310034 
14106.6835909636 20508.0627746004 148.424793808907 
14104.9592986875 20507.8641996668 147.848821449598 
14102.7692995567 20507.9657793729 146.36806810841 
14100.8822387889 20507.8716719183 146.436240374993 
14098.6541787971 20507.7673893981 146.130881126 
14096.6765474054 20507.8397619174 146.274343959695 
14094.9255669312 20507.9689307976 149.844880616629 
14092.726609705 20507.9169601375 149.715467402782 
14090.3882344496 20508.0649385038 143.356199965612 
14088.3434427863 20507.9447363371 142.544385871742 
14087.1278088302 20508.006327188 155.315270269799 
14085.0593550832 20508.2324750791 156.094373113344 
14083.2133716509 20507.8706807142 158.250309832655 
14081.2678365348 20507.9488300535 158.369726522459 
14079.3180716644 20507.8824263782 158.907751806573 
14077.4009725925 20507.6815502119 160.914660826523 
14075.2995666197 20508.0609422768 160.946284096766 
14073.1705780926 20507.938618286 160.140966313943 
14071.4672493688 20507.8644985308 160.431628442262 
14068.5820106085 20507.9706957585 151.365033092423 
14066.7745239968 20507.9050246608 151.492584020917 
14064.8720294543 20507.8040846287 151.790961960105 
14062.8364526901 20508.1393354846 152.175166105631 
14061.0053828032 20508.1341396515 152.73599512372 
14058.918213871 20507.9619768924 153.220928693136 
14057.4475334155 20508.1190043244 160.005772353657 
14055.4451709662 20508.0520592401 159.510067527667 
14053.5241186677 20507.7563850857 159.047446415693 
14051.4433462493 20507.9838890078 158.576256964562 
14049.5181239469 20507.9143248207 157.990006341458 
14047.0864416014 20507.9406938524 157.447469736232 
14044.7170901966 20507.9954213929 151.475092143423 
14042.8285492803 20507.9393634531 151.13993484576 
14040.7907092692 20507.9345210658 150.649199674213 
14038.5715066753 20508.0151894782 150.312922565865 
14036.6357826071 20507.8349946767 149.957931606669 
14034.4182251113 20507.9011534827 149.589724002179 
14031.5854947245 20508.0391439842 142.251253322548 
14029.6620861425 20508.006270346 142.322173004743 
14027.4896570103 20508.0644474874 142.123105298712 
14025.5441894365 20507.8666142759 142.095896445571 
14023.4221588302 20507.8805274293 142.226774546269 
14021.558749308 20508.0092972346 142.146746684556 
14019.2843060377 20507.9273952593 142.274873774907 
14017.3021602958 20507.7661645356 142.409240270013 
14015.1278757176 20507.9512970493 142.382802205269 
14013.2113329007 20508.1413734768 142.410539880224 
14011.3107450957 20508.1794089719 143.661010217019 
14009.3254055669 20507.9692956796 143.559956354471 
14006.981992698 20508.1610535294 142.916509767408 
14005.0536681969 20508.0035705641 142.539086058867 
14002.9871018037 20507.8236244938 142.568533267626 
14001.5489443003 20508.0412339603 149.274916762985 
14001.0957199864 20507.9395073523 159.065711888277 
14248.9226442728 20508.259385701 151.323872473941 
14246.9665822922 20508.3229598899 152.886125165829 
14244.7076888794 20508.424676639 152.71356261414 
14243.4155777944 20508.3613977923 148.24358813365 
14241.4449396026 20508.0773575701 148.334528802366 
14239.1035079198 20508.3416705101 148.47433509438 
14237.1659991797 20508.1441173299 150.212001482853 
14234.6250985861 20508.4831185256 153.866264699196 
14232.4953802509 20508.3085833709 153.644599869909 
14229.6142678885 20508.2482994123 159.063969732477 
14227.7936811713 20508.357280025 158.580264756745 
14225.8236726635 20508.3482221974 158.764889848579 
14224.5608024958 20508.2501610712 151.512969252289 
14223.1654489785 20508.2681983411 146.778735676909 
14221.6075670157 20508.5353242452 142.829978827302 
14219.6417487878 20508.2022881093 142.848328983516 
14217.6917969123 20508.3697183697 143.585464426437 
14215.2165496783 20508.3164716826 145.574336136948 
14212.9204009172 20508.0710675178 146.13328740429 
14211.0225553717 20508.1037735827 146.088784433011 
14208.7023308616 20508.2172367194 149.40588232028 
14206.6638818423 20508.4539035856 151.08297016536 
14204.3403624857 20508.2916704027 153.213581681522 
14202.7589532722 20508.0747712954 150.977154671786 
14200.5032251418 20508.3223885075 151.099769610457 
14197.9241434327 20508.4230100287 153.856642053941 
14196.0812628271 20508.4890728057 156.430429575223 
14193.9221808683 20508.2440313302 156.761623861806 
14192.2419368472 20508.4754531156 152.412319226943 
14190.2389826835 20508.2803210186 153.354121058694 
14187.6655739906 20508.1702838618 157.974669500448 
14186.0046901832 20508.3786674206 158.299781928348 
14183.6846888052 20508.3483383943 160.067313888815 
14181.7837256595 20508.2315811935 158.145508044759 
14181.1232376322 20508.3291228667 142.657050167704 
14178.828886149 20508.3425951413 142.113174171656 
14176.3864043431 20508.1756526435 147.378097699927 
14174.8555679322 20508.2904043817 141.356955205003 
14172.68890564 20508.3190873613 141.53392358617 
14171.0883851862 20508.0961286051 141.560326154979 
14169.0017227824 20508.273699274 141.637773478398 
14166.1075275984 20508.2598971254 156.073230874191 
14163.8944243545 20508.2049968958 158.233621665664 
14161.8614875147 20508.1112607373 160.252954902169 
14159.8753699674 20508.3513061302 157.9159676268 
14157.8725632531 20508.3472183334 155.953910552333 
14156.4631422563 20508.3516855427 149.654262503714 
14154.5579897921 20508.0788144444 141.63677490339 
14152.6060138623 20508.3363783297 141.602311604081 
14150.5112274971 20508.1189359715 141.632241180784 
14148.7035408604 20508.3097300294 144.110872574721 
14146.2399102109 20508.3777073055 144.156492697277 
14144.4535014819 20508.1973294189 144.333565926234 
14142.272304811 20508.1889838092 159.509903059767 
14140.1705044785 20508.1872948122 156.917341199628 
14138.2031659972 20508.3350931901 156.385991611983 
14136.4258028352 20508.187677314 151.312556039852 
14134.3530253426 20508.1485520538 148.794617802867 
14132.2415245081 20508.2107991311 153.991256435433 
14130.3967899912 20508.4987856767 159.449975686143 
14128.2047407107 20508.4787426604 157.69581294865 
14126.3360760901 20508.2023666942 149.599103141956 
14124.1624390215 20508.2809639617 149.059268565045 
14122.4628809884 20508.289348125 146.972463462858 
14120.239535722 20508.2113529251 148.388611841481 
14118.3692809882 20508.2930649322 142.623868020244 
14116.0875479099 20508.2973239159 142.058445680005 
14114.140803557 20508.2856633222 141.513640544335 
14112.1565565331 20508.1383562158 141.731226938103 
14110.1849047992 20508.1969892675 141.5958614873 
14108.2421030863 20508.2814575761 148.668712046252 
14106.1775838373 20508.5297096147 148.265209721301 
14104.1535762491 20508.5339504909 146.503619697442 
14102.2302729601 20508.1440941028 146.521294782262 
14100.1819941539 20508.5129690498 146.381296403813 
14098.1541271301 20508.2431251167 146.362861487158 
14096.223961533 20508.2518931347 148.060041929472 
14094.0751626113 20508.3054669039 149.800917789334 
14091.8510332278 20508.4868246068 144.882263876224 
14090.0627627202 20508.3710801865 144.121736808641 
14087.7323732867 20508.2506634308 142.610855281924 
14086.3186436403 20508.3637939847 155.500455522236 
14084.5373574342 20508.2273289574 156.274594811172 
14082.7224554033 20508.3348784942 160.824451384083 
14080.5403620468 20508.2672396283 158.853485896398 
14078.7355614316 20508.5012510794 159.287803599444 
14076.5253464001 20508.4073303198 160.619384889358 
14074.9277088964 20508.3845749891 160.58302575923 
14072.7398145365 20508.1916611519 160.750127929268 
14070.7938348652 20508.4344327321 160.948007435717 
14068.0800955419 20508.4393390068 151.715704004383 
14066.2219419276 20508.4136088692 151.88225141333 
14064.2662051174 20508.1879396497 152.364042983958 
14062.2946565895 20508.0749055863 152.728617369217 
14060.4709096952 20508.3002051329 153.317313895347 
14058.4198855756 20508.3014126619 153.698061948364 
14056.6759650639 20508.2005667075 159.465655904625 
14054.8935774106 20508.2519240332 159.055357225845 
14052.79694683 20508.3202338143 158.539598935673 
14050.6571685879 20508.5017083562 158.034505739285 
14048.5600778298 20508.3426335833 157.504014425649 
14046.6435371488 20508.2623468722 156.999932776578 
14044.3315582605 20508.509592779 152.223501496126 
14042.0842492415 20508.3330442462 150.674575796652 
14039.8102731369 20508.248443914 150.273487261004 
14037.789765757 20508.428990247 149.98890478787 
14036.0208968971 20508.4816247887 149.683382310452 
14033.0076449452 20508.1812784126 142.205450252369 
14030.7165176751 20508.3902224895 142.12468627976 
14028.8975627961 20508.2890022471 142.126401454269 
14026.7954283633 20508.4993016075 142.134695908153 
14024.8679400868 20508.3594321319 142.189621179597 
14022.8095600314 20508.2147937225 142.218115642771 
14020.9594947402 20508.3925904025 142.309569686332 
14018.3831076307 20508.169003467 142.234639789486 
14016.5277593534 20508.4178837596 142.502236310617 
14014.3357329341 20508.2297401991 142.391296762552 
14012.2943102094 20508.4751419128 142.97739557538 
14010.4204853052 20508.4193913754 143.363901964373 
14008.311100484 20508.2793437116 143.06458113194 
14006.5769047906 20508.2061538952 142.517322412682 
14004.1632804811 20508.4015765638 142.502495003379 
14004.620055209 20508.4136616696 158.704305961947 
14002.5079928842 20508.1463874307 159.175678923537 
14000.3373753965 20508.3986818517 159.243053852236 
14248.4980328477 20508.6857803341 150.839373604536 
14246.2178484024 20508.6550428454 152.639415220536 
14244.2384568123 20508.671335761 150.476589219517 
14242.8804614142 20508.8408426642 145.16050169405 
14240.7786983062 20508.6008491931 148.656505543138 
14238.5835741915 20508.6233122762 148.90172303382 
14236.3123070105 20508.4171087783 150.296637641602 
14233.868113351 20508.5341465902 153.679597384891 
14231.8933289366 20508.6160153675 153.255397133386 
14229.2712832477 20508.6712057877 158.703739134095 
14227.045276828 20508.6765345768 158.663977483301 
14225.4323794835 20508.8119605023 158.89803146758 
14224.4807022477 20508.6659570384 147.516006954683 
14222.2589402149 20508.5700005665 147.591857133037 
14220.9817319557 20508.7798158713 142.649884257003 
14218.8254094452 20508.606106153 143.067981806386 
14216.6820104765 20508.7567606845 144.543095700083 
14214.6120276308 20508.6879265739 145.767983273675 
14212.4763738544 20508.7519223764 146.016043231114 
14210.2281149433 20508.7553400009 146.163894322551 
14208.0703991675 20508.6688798866 149.871103923592 
14205.822466661 20508.5141690892 151.707888192524 
14203.7736494866 20508.6500562402 150.794050115112 
14201.7753176011 20508.6278775292 150.890372418762 
14199.7804121842 20508.4864459637 150.730444715379 
14197.3294480479 20508.924571466 155.849894249509 
14195.3132823575 20508.7130826627 156.554683644354 
14193.810679162 20508.791345731 153.358412027731 
14191.3565673679 20508.7850831399 153.241694528493 
14189.7224779605 20508.9697041277 153.051349327815 
14186.9662625688 20509.0052807874 158.735201452276 
14185.1018553017 20508.6424996446 158.839878661996 
14183.1547510614 20508.8594582739 159.744216999319 
14181.2722088785 20508.687574537 157.640055926114 
14180.500230476 20508.7477150913 142.365417929078 
14178.3304050321 20508.8405329742 142.154177815309 
14175.92643332 20508.6082597505 141.318633546941 
14174.2393837423 20508.6401624087 141.430218428368 
14172.2044981024 20508.7019160931 141.452156204177 
14170.2849975955 20508.804401462 141.599352534201 
14167.3600550974 20508.921475921 154.961311839864 
14165.1398767688 20508.5440513723 156.731298729851 
14163.2439000843 20508.5693661855 158.834026664804 
14161.1636404393 20508.5556545681 159.583186280299 
14159.4035610641 20508.7542065121 157.278973633368 
14157.5010898889 20508.6965022759 155.262204757482 
14155.9993295575 20508.4387649699 141.869935046114 
14153.8555819518 20508.5421752932 141.610542144818 
14151.9773203127 20508.600969284 141.476464718551 
14149.9439993538 20508.7076191049 141.641624795634 
14147.9228260966 20508.7774820646 144.253786293761 
14145.8778872142 20508.7914893848 144.276623236945 
14143.7847315096 20508.8643304725 144.349001959808 
14141.5439563097 20508.6140101265 156.235064737992 
14139.6513861688 20508.8877465021 156.911532949404 
14137.4065811927 20508.8571468816 155.445463166376 
14135.6486621269 20508.7986746243 151.014544127452 
14133.6164337777 20508.5278137092 152.59684716673 
14131.4604276228 20508.8278128253 161.038616965776 
14129.6606526537 20508.7556306942 158.819728485321 
14127.7244710247 20508.778695279 155.848176103558 
14125.4372345087 20508.7582588422 150.443780274071 
14123.5334565529 20508.6473737019 148.657297975128 
14121.5662137357 20508.7940689558 148.320378311986 
14119.7202799033 20508.6886340563 148.562833849755 
14117.5916550392 20508.7368777837 142.305467899052 
14115.7210577341 20508.7542347727 141.394103522266 
14113.5274075675 20508.7105960148 141.51997094504 
14111.2356005388 20508.9320325822 141.54252826049 
14109.3332961114 20508.7034492995 141.370759947102 
14107.5234121849 20508.9165009269 148.6374122945 
14105.4209150606 20508.4164181726 148.07415766471 
14103.5569552378 20508.8955373838 146.547961151084 
14101.4552942396 20508.6316250022 146.379973438848 
14099.4124988861 20508.463210195 146.402766380424 
14097.4386240805 20508.8833896211 146.727193562473 
14095.4815085485 20508.5588008297 151.234172030019 
14093.5079598255 20508.6643307087 149.799882742257 
14091.2430437888 20508.602085978 143.685207146382 
14089.291418815 20508.828017049 142.596015406949 
14087.8446996639 20508.8157733377 154.943146776235 
14085.8403824988 20508.6815743705 155.832678515346 
14083.6837081695 20508.5070325876 156.511918418263 
14082.0190885652 20508.7672938338 160.855142578905 
14080.1001190983 20508.7747197525 159.3579354296 
14077.9919398729 20508.5895021126 159.643960634472 
14075.9268729299 20508.7758321939 160.260669876553 
14074.0381361987 20508.6684139281 160.540893633419 
14072.0486653699 20508.8030294874 160.895935145354 
14069.2785552735 20508.6263883121 151.325736196246 
14067.6500406761 20508.7958554281 151.890882899766 
14065.6401345473 20508.5443668073 152.328705986604 
14063.5437926235 20508.6646091455 152.822901934929 
14061.5985955818 20508.6194250656 153.22273965583 
14059.6975462491 20508.665355473 153.839051269065 
14057.555102476 20508.9080165105 155.094057846481 
14055.8908947479 20508.7288241295 158.871519513311 
14054.074825677 20508.6978979197 158.367480851012 
14051.7337714872 20508.7856132208 157.854696546471 
14049.8976884356 20508.8225600934 157.354386050414 
14048.0685072897 20508.6368992533 156.836406482744 
14045.9133593293 20508.7294676258 156.25893296101 
14043.2553276036 20508.6010103184 150.658943494273 
14040.9590136741 20508.851230308 150.272436436263 
14039.0934877759 20509.1082323808 149.962055710733 
14036.9622215882 20508.7078387726 149.676463325709 
14034.3372977015 20508.5870851021 142.127187621284 
14032.4429767807 20508.7250177629 141.978782945781 
14030.0304428506 20508.8762287952 142.027124878621 
14027.977173337 20508.6471849126 142.174921565963 
14025.9787907044 20508.5075225643 142.019240949365 
14024.0065714045 20508.6196206474 142.211295678896 
14022.1141301947 20508.8507038716 142.259028387509 
14020.0301784508 20508.6212283022 142.26745254843 
14017.8058040339 20508.6632551453 142.406485555251 
14016.1767633908 20508.7612461394 143.109814803581 
14014.013188651 20508.4159102507 143.530371982999 
14011.9891555517 20508.8887579851 142.925981749948 
14009.7520715595 20508.7056774134 142.835172811828 
14007.6682133606 20508.7271230735 142.506695613846 
